1.260281510686026607e+01 1.517070825961354785e+00 2.460796495186857946e+00
1.260267720972754191e+01 1.828279157308884351e+00 2.462114683590082453e+00
1.260287745832111383e+01 2.131312255603347694e+00 2.460189073297244455e+00
1.260275336760139631e+01 2.442480366071322351e+00 2.461389900122870511e+00
1.260262434649589736e+01 2.753631605290934203e+00 2.462605917300168201e+00
1.259547877037588393e+01 3.065791083432031883e+00 2.496586845335765137e+00
1.260284116503547835e+01 3.371272200486032489e+00 2.460543436078472812e+00
1.260953353774398877e+01 3.679571954868379180e+00 2.427512609612561878e+00
1.260276162559472724e+01 3.996907476229239364e+00 2.461309276312854344e+00
1.261085160018327578e+01 4.282908527981135194e+00 2.345258946260091903e+00
1.261076446203654378e+01 4.594900008548279402e+00 2.346116128253224797e+00
1.261133728958009037e+01 4.900131760384510926e+00 2.274572337469136230e+00
1.259638600020772614e+01 5.225538389131770600e+00 2.341483584618128777e+00
1.260426422958032511e+01 5.523980135982583306e+00 2.226821988883100900e+00
1.260146045886987309e+01 5.834978914699490815e+00 2.202923424999064572e+00
1.261459678999565526e+01 6.138117327709551319e+00 2.098777528526414748e+00
1.259788310547859425e+01 6.451159584704328154e+00 2.105211826352458626e+00
1.260320607727175002e+01 6.755891899299285797e+00 2.027513971022241179e+00
1.260667777065094342e+01 7.063701032941025915e+00 1.976838307103005565e+00
1.261150584972065403e+01 7.370730025823831966e+00 1.906389179502102849e+00
1.260636149192063193e+01 7.674576133891491736e+00 1.909021396203162357e+00
1.261384276498336554e+01 7.985555934610260920e+00 1.871879110010723934e+00
1.260584342051454776e+01 8.298880494798595464e+00 1.988875915528411920e+00
1.260311081573698644e+01 8.602624888250147706e+00 2.028429317424247369e+00
1.259874694864752520e+01 8.910389519524073876e+00 2.113887144179275701e+00
1.260831833142644953e+01 9.224256795559995226e+00 2.168298531999977907e+00
1.259872398151451733e+01 9.525133795147553428e+00 2.307335334597070187e+00
1.260838165344984141e+01 9.830122178650753995e+00 2.380523199450579330e+00
1.260337853324839053e+01 1.014278130274180967e+01 2.558080578993554788e+00
1.260131882564224881e+01 1.044883111502622342e+01 2.692513197321730889e+00
1.261322269122320883e+01 1.076513995459515627e+01 2.730653205384367510e+00
1.260245564478036329e+01 1.106628565664789221e+01 2.884214414368183821e+00
1.259941226241060797e+01 1.137087857766812249e+01 2.989517899552736058e+00
1.261403597009824651e+01 1.168911961856099424e+01 2.925650880100615137e+00
1.260358622811058282e+01 1.198590734131596491e+01 3.073891018582965096e+00
1.260871176192459053e+01 1.230109275714676187e+01 3.000742667238787575e+00
1.260610523934651361e+01 1.260258090058198377e+01 3.037743977316689215e+00
1.261400926996238248e+01 1.291751061154400304e+01 2.925911548596451528e+00
1.260021664990518175e+01 1.321928287725177142e+01 2.985192335779146333e+00
1.259979325728159516e+01 1.352466644741150503e+01 2.921946317632146517e+00
1.260771040494970840e+01 1.384334446311390820e+01 2.809333018809325733e+00
1.261154086452783041e+01 1.415010551229147495e+01 2.754144010628604811e+00
1.259344245170474785e+01 1.443776138732869185e+01 2.805422206867930424e+00
1.260137250608697457e+01 1.476018769891209104e+01 2.692025025486715961e+00
1.260363711054524494e+01 1.506696158515751449e+01 2.659067188078671151e+00
1.260911587073420037e+01 1.537565477828525218e+01 2.580195477933459713e+00
1.260932094230704514e+01 1.568225179808803205e+01 2.578223639400400558e+00
1.261713089464277893e+01 1.600259954502200799e+01 2.465560780960199150e+00
1.259724789414369361e+01 1.629495407397666895e+01 2.562724577154434691e+00
1.259479679583890821e+01 1.659745718613260124e+01 2.575903343399119194e+00
1.258760255234992975e+01 1.689863268264548424e+01 2.610404709377945220e+00
1.259487899257805132e+01 1.720645675051594026e+01 2.575122797443797573e+00
1.259499564699465779e+01 1.751666916559383935e+01 2.573986144935548115e+00
1.259709692215662535e+01 1.781979121164647495e+01 2.564209296939132798e+00
1.259722284930960789e+01 1.813013188478009852e+01 2.562983747746449659e+00
1.260734963190966162e+01 1.845249331356717448e+01 2.464635599449411352e+00
1.261026659462026345e+01 1.877528817051972965e+01 2.423948458065381395e+00
1.261040320085332489e+01 1.908683832443352912e+01 2.422609847534642480e+00
1.261019077037569502e+01 1.939007753155090086e+01 2.424678449992890616e+00
1.261034083191511002e+01 1.970167301386618419e+01 2.423225917236752291e+00
1.292645117042398617e+01 2.709349914229051137e-01 2.446482658149091716e+00
1.292672199125663823e+01 5.741029483414195056e-01 2.444128212043245263e+00
1.292653381115077060e+01 8.857660869743995136e-01 2.445768289813665675e+00
1.292678051144716100e+01 1.189024784465459561e+00 2.443611367441261173e+00
1.292660720645369210e+01 1.500638167975921533e+00 2.445131545276400864e+00
1.292642803051394829e+01 1.812230852425500416e+00 2.446671845209007934e+00
1.291904526132864106e+01 2.125473718378771082e+00 2.480218467386552827e+00
1.291508406855679247e+01 2.441521872092721424e+00 2.499373897713626391e+00
1.291112759562658319e+01 2.757244097435091135e+00 2.518492076536877011e+00
1.290369894013543473e+01 3.069154752605300018e+00 2.552497894628374286e+00
1.290357277995039453e+01 3.379723397889506487e+00 2.553639683336728083e+00
1.290344119188953265e+01 3.690275896892444507e+00 2.554797401628043918e+00
1.290360660252396841e+01 3.992924143937329973e+00 2.553334793264897762e+00
1.291235988101005816e+01 4.286213701846463664e+00 2.439953751676941174e+00
1.292016799337850763e+01 4.597031939033399794e+00 2.402639865192102597e+00
1.291527790383696939e+01 4.913556672891104427e+00 2.402098514616472613e+00
1.292121330885822061e+01 5.213018758693579002e+00 2.325448796539338225e+00
1.290017374593185018e+01 5.531292675951817728e+00 2.388762951842760884e+00
1.291405067888288727e+01 5.832323403064492595e+00 2.285667708468644754e+00
1.291594252766790518e+01 6.137346668195391430e+00 2.203645599205251049e+00
1.291586812861591049e+01 6.450627558109886195e+00 2.204307750751602235e+00
1.291315593487232860e+01 6.754978593642476881e+00 2.143683212665372650e+00
1.290232965581920332e+01 7.070637335574360804e+00 2.188250958215983921e+00
1.290769614053717085e+01 7.376164968723969650e+00 2.118337448245703136e+00
1.291045091815707480e+01 7.681123213169826158e+00 2.082724981685890597e+00
1.291048190268335816e+01 7.987750993227109575e+00 2.082404351176962987e+00
1.290765092369079525e+01 8.296920083167265147e+00 2.118692928748547644e+00
1.291316625369788440e+01 8.603409896622792985e+00 2.143591527845885469e+00
1.291591444181542059e+01 8.911274324130545210e+00 2.203879234146836730e+00
1.290688416277961004e+01 9.219500520121187037e+00 2.320497518236810830e+00
1.292039245711932871e+01 9.526686247591896972e+00 2.336317409388091182e+00
1.290794865122229851e+01 9.829787876243244682e+00 2.496976732917783437e+00
1.291778709185613927e+01 1.014038516850143878e+01 2.558716632579697503e+00
1.290450238374023684e+01 1.044867999610153220e+01 2.729136845283282486e+00
1.291428823604474019e+01 1.076367040000252473e+01 2.790145368381720559e+00
1.290544409589379704e+01 1.106149370670732424e+01 2.902888168437473215e+00
1.291960864237426954e+01 1.136888887190173136e+01 2.907191511038732745e+00
1.291870151243838727e+01 1.168532448137625579e+01 2.918607685175408140e+00
1.291080074788849252e+01 1.198516208514990922e+01 3.019040750870673584e+00
1.291084506586227221e+01 1.229175402035514253e+01 3.018650669980052381e+00
1.291077989754511002e+01 1.260550796852987787e+01 3.019218014826758445e+00
1.291963410554831349e+01 1.292082229511129299e+01 2.906968057279942563e+00
1.291953985350122558e+01 1.322084179452076569e+01 2.907775505718708686e+00
1.290548338349739588e+01 1.352870771090772450e+01 2.902566061119695728e+00
1.290802097203593135e+01 1.383291517305156049e+01 2.869750667399807220e+00
1.291425660913085238e+01 1.414871242158392306e+01 2.790420479325061542e+00
1.292319464789307482e+01 1.445590636516556060e+01 2.676621349369006975e+00
1.290014753162101435e+01 1.474769619233802587e+01 2.785235563033312101e+00
1.290894310006668277e+01 1.506762798405827652e+01 2.672297638422928667e+00
1.290878605835148996e+01 1.536938350028992772e+01 2.673656318429243228e+00
1.291776684769652483e+01 1.569604735113091465e+01 2.558897265834152446e+00
1.291774106472570161e+01 1.599521402344203125e+01 2.559121956647204765e+00
1.291798910055749339e+01 1.630225402959990788e+01 2.556895625127131311e+00
1.291784480523942946e+01 1.660489746781729536e+01 2.558210203419193363e+00
1.291797176527721902e+01 1.691543809043525926e+01 2.557065563845850598e+00
1.291780167776679278e+01 1.721801779177792469e+01 2.558591787299746123e+00
1.292239265048822894e+01 1.753996299002653814e+01 2.500220354207022044e+00
1.292665567252764802e+01 1.785478001324281649e+01 2.444709292200490935e+00
1.292681440882796373e+01 1.816634466652510582e+01 2.443309174190895217e+00
1.292659039492200357e+01 1.846968543708226207e+01 2.445277379509413596e+00
1.292676425929530559e+01 1.878129687501984790e+01 2.443755269156075993e+00
1.292693224894549076e+01 1.909292846887069572e+01 2.442253613622128672e+00
1.292670432875978115e+01 1.939621391706134546e+01 2.444283470645153500e+00
1.293383030608248063e+01 1.971708982543520960e+01 2.409936771805964550e+00
1.322582749490600307e+01 2.832734174711504238e-01 2.546893962954933865e+00
1.321896646793256203e+01 5.946929545858665733e-01 2.576917186149162209e+00
1.322364675266664058e+01 9.014553134993548156e-01 2.556054391417618366e+00
1.322640073047305798e+01 1.202751049957896612e+00 2.542278141113571088e+00
1.322869276291874563e+01 1.512602933585981191e+00 2.532263825842901994e+00
1.322621326028649413e+01 1.828057464712856017e+00 2.543809086681073417e+00
1.322642832530797818e+01 2.130854491353716185e+00 2.542044550936702674e+00
1.322624961877880345e+01 2.441810072262342146e+00 2.543513915418742055e+00
1.322606448563784198e+01 2.752745444154470533e+00 2.545004169865645594e+00
1.322627920277833269e+01 3.055582254942692089e+00 2.543272126222033691e+00
1.322611100560463804e+01 3.366472093562151713e+00 2.544631988458529559e+00
1.322593654170462862e+01 3.677342713572670618e+00 2.546011024116394683e+00
1.322719982933842253e+01 3.984219193133640147e+00 2.532355340150978851e+00
1.321440996419763536e+01 4.293662097921014720e+00 2.527917169698157274e+00
1.321195762562359555e+01 4.608259092314597183e+00 2.539275602096613849e+00
1.321181831352713232e+01 4.919081910562113080e+00 2.540384611575886353e+00
1.322488806234883008e+01 5.207561953682443345e+00 2.388873386554577039e+00
1.322194469135943606e+01 5.526444205825214340e+00 2.423270806322255222e+00
1.323174883178531402e+01 5.825496546666727227e+00 2.308583754471768223e+00
1.320747613189195846e+01 6.149486895905852180e+00 2.420083870745348253e+00
1.321838771781884070e+01 6.443964026407456913e+00 2.292461429275475471e+00
1.321500914168157514e+01 6.758525190150407980e+00 2.314908431720581472e+00
1.322730418942201780e+01 7.062728363907694984e+00 2.187930724826573581e+00
1.322493488305878806e+01 7.367995829527103524e+00 2.198609968097228862e+00
1.322724512241132189e+01 7.678611143881425960e+00 2.188384064639564475e+00
1.322734045170932404e+01 7.984568719371623047e+00 2.187640007650904383e+00
1.322738451182681629e+01 8.290555055103595805e+00 2.187264593304961036e+00
1.322075086903113927e+01 8.604435815717351943e+00 2.264950947317402097e+00
1.322450780457607777e+01 8.912505453340259010e+00 2.278402357713659843e+00
1.323173971630282075e+01 9.211225409233975370e+00 2.308656428254326709e+00
1.321850041419900279e+01 9.528216941023856634e+00 2.462880541836310222e+00
1.322506689316432649e+01 9.827998626290764150e+00 2.500343146109505810e+00
1.321636024337864335e+01 1.014010520394651849e+01 2.658125214216084053e+00
1.323051972206397764e+01 1.044976675692078061e+01 2.663013259308880443e+00
1.322068696476807759e+01 1.076070956262310574e+01 2.776622983978857651e+00
1.321882318430130887e+01 1.106597658462897016e+01 2.853863676337652144e+00
1.322502991593783150e+01 1.137022894308427112e+01 2.894055023508221858e+00
1.322497110567172385e+01 1.168524384554643802e+01 2.894510723486435122e+00
1.321528376605425059e+01 1.198709249513512987e+01 3.006179644054866706e+00
1.321533257725610611e+01 1.229398576656512887e+01 3.005771648753970293e+00
1.322222756682807798e+01 1.260515782002869400e+01 2.981731655297759520e+00
1.322490903455162403e+01 1.291618186093853637e+01 2.894996680492301522e+00
1.322499973233175474e+01 1.322402334848607097e+01 2.894295749747911817e+00
1.323516281786985260e+01 1.353994830827377882e+01 2.759894185296043467e+00
1.321089857106894705e+01 1.383254664652770316e+01 2.889652623634838768e+00
1.322049366048524277e+01 1.414524176220550089e+01 2.778139820699039308e+00
1.322318187567268666e+01 1.445045825314366539e+01 2.764962661403610245e+00
1.323054711425664109e+01 1.476256167691394694e+01 2.662826461237927322e+00
1.321867585687642688e+01 1.506498093154777962e+01 2.716251115690311302e+00
1.321635208349525037e+01 1.537496052477661124e+01 2.658194375127999276e+00
1.321541999444672655e+01 1.568077524712361992e+01 2.669183908277837247e+00
1.321632026368623336e+01 1.598687624915271499e+01 2.658450346970066214e+00
1.321908884673660189e+01 1.629533402402421416e+01 2.625665622445689351e+00
1.321628181110022204e+01 1.659877433468307117e+01 2.658758630212573859e+00
1.322286650161697708e+01 1.691996062777832321e+01 2.582442198206206463e+00
1.322605550966690302e+01 1.723244862397541510e+01 2.545075648916364841e+00
1.322624094856306876e+01 1.754338301838129155e+01 2.543584409208062169e+00
1.322600168215026883e+01 1.784615000315602629e+01 2.545505298330345223e+00
1.322620379975882798e+01 1.815713326233685621e+01 2.543885659144088152e+00
1.322594156298629997e+01 1.845982608972065009e+01 2.545984542999164546e+00
1.322616007875872057e+01 1.877086150341312987e+01 2.544238684945501650e+00
1.322637184648050557e+01 1.908191996799553181e+01 2.542516637653124523e+00
1.322610998997708265e+01 1.938456560183965394e+01 2.544641863136065663e+00
1.322633768760657524e+01 1.969568063982433159e+01 2.542797467645606879e+00
1.353171606344805689e+01 2.918031585481912771e-01 2.613690723796392668e+00
1.352387574081080501e+01 6.053102884744703260e-01 2.646592000513936505e+00
1.352362241745679938e+01 9.157765077254680364e-01 2.648518841056205719e+00
1.352336136750142437e+01 1.226217447506542157e+00 2.650473523318638502e+00
1.352363464186602648e+01 1.528253138613763440e+00 2.648425937664665053e+00
1.352339103750632354e+01 1.838634781833548004e+00 2.650252472440984164e+00
1.352364377074007606e+01 2.140737647260721133e+00 2.648355992729679809e+00
1.352341796265833374e+01 2.451063483714733593e+00 2.650051787120335067e+00
1.352318482061012261e+01 2.761365993122467444e+00 2.651771779757535974e+00
1.352364684672786410e+01 3.066864064447372584e+00 2.648330726048649719e+00
1.352364358349944595e+01 3.380499264489913003e+00 2.648354728054064022e+00
1.352690136358847539e+01 3.687028736937008944e+00 2.612773702277928933e+00
1.353443649751203282e+01 3.974784481918618440e+00 2.533920432628903985e+00
1.353426460964867850e+01 4.285905311855117361e+00 2.535217821139441163e+00
1.352589341395923661e+01 4.604577417370137482e+00 2.572127780510511386e+00
1.353427501915802189e+01 4.915036530651946123e+00 2.535140042318670073e+00
1.352026907843344894e+01 5.217812425160445855e+00 2.528882746950431581e+00
1.352013588641961839e+01 5.528888320100122655e+00 2.529896538088956870e+00
1.352981972854471948e+01 5.826236082394871119e+00 2.426646995449619482e+00
1.353822507544276199e+01 6.139106234816040342e+00 2.389467057822875606e+00
1.353650302529268501e+01 6.445303185020975434e+00 2.356002703215562821e+00
1.352929732170110633e+01 6.757569243803800418e+00 2.354152273519777516e+00
1.351685652593412179e+01 7.066694558749304633e+00 2.408782145695155918e+00
1.352658118230382200e+01 7.369185921005851014e+00 2.304746392441373359e+00
1.352768449723871136e+01 7.675982286465341531e+00 2.292989146926627253e+00
1.352762964263435563e+01 7.988888334661851331e+00 2.293424697563785308e+00
1.351682150591361342e+01 8.299409972111789102e+00 2.409038520623766111e+00
1.352926214241057501e+01 8.605645291050564083e+00 2.354408779680315700e+00
1.353094687957287690e+01 8.908548280596505720e+00 2.414777582901883157e+00
1.352772550585962996e+01 9.214392474773944741e+00 2.449173563709902357e+00
1.352899239955991995e+01 9.528546509608986526e+00 2.513466360396425348e+00
1.353069264947040473e+01 9.832402855287796228e+00 2.573192338757902764e+00
1.351812390526599472e+01 1.014001466095021442e+01 2.706424603542084473e+00
1.353219748995764782e+01 1.044947266181816303e+01 2.711593343178906323e+00
1.352320996380808893e+01 1.075934332018800887e+01 2.806406025217446754e+00
1.354084908007205357e+01 1.106651721927153176e+01 2.773737242094987288e+00
1.353013265100212159e+01 1.137136431668193381e+01 2.886532586167326997e+00
1.353007928098323909e+01 1.168664065300060884e+01 2.886925025359984964e+00
1.352047559593751558e+01 1.198708809374238626e+01 2.987969017820019779e+00
1.352298232871096140e+01 1.229319883711320927e+01 2.961664533340639505e+00
1.352901907797812697e+01 1.260034519578130130e+01 2.898113169840849768e+00
1.353004666161991132e+01 1.291861910236821132e+01 2.887165858863695256e+00
1.353105733104219333e+01 1.322239530761282822e+01 2.876335591722325447e+00
1.354077819221859968e+01 1.353789970441937385e+01 2.774260461734005201e+00
1.352330502252955391e+01 1.383371765979609336e+01 2.856666324687686664e+00
1.352344458165057084e+01 1.414429513334903277e+01 2.803543667787105509e+00
1.352668137938305293e+01 1.445407819143554207e+01 2.769427675255062393e+00
1.353438326754510612e+01 1.475720361680066617e+01 2.735013528876394151e+00
1.353758933299714684e+01 1.506905444724816334e+01 2.654689433697519529e+00
1.353774207036189381e+01 1.537916089709983680e+01 2.653535981490205309e+00
1.352513778663388777e+01 1.567317696197017085e+01 2.709201680981944360e+00
1.352037678779564267e+01 1.598601305454394605e+01 2.682865483443535481e+00
1.352344480850976538e+01 1.629450431354075590e+01 2.649851385070801868e+00
1.352363471509615245e+01 1.660472769994771625e+01 2.648422244442442341e+00
1.352342189313618981e+01 1.690694856756999798e+01 2.650022199497778619e+00
1.352363025558508447e+01 1.721722018885532179e+01 2.648457420136821838e+00
1.352362681609670325e+01 1.752346419301738933e+01 2.648483982953341087e+00
1.352362258169160647e+01 1.782970652548988255e+01 2.648516442691340345e+00
1.352620166963634141e+01 1.814440398796000409e+01 2.636922903914435068e+00
1.352335822115747099e+01 1.844540411787340872e+01 2.650496588316135327e+00
1.351524385646621695e+01 1.874837032716106933e+01 2.685535915622566883e+00
1.352302919730958664e+01 1.906092754388578214e+01 2.652924549211748140e+00
1.352331561379078728e+01 1.937140249897015565e+01 2.650813958073423571e+00
1.352359411860416749e+01 1.968190479077406962e+01 2.648732450666604787e+00
1.381853772141913161e+01 3.186615373261929562e-01 2.760277991764983341e+00
1.381820273589703341e+01 6.285077026983572068e-01 2.762607561754306218e+00
1.381852701776896808e+01 9.297461335705747842e-01 2.760352871543921172e+00
1.381821022200649196e+01 1.239523339438278526e+00 2.762554445075771969e+00
1.381088291039019289e+01 1.548841423585940902e+00 2.792504625943498020e+00
1.381850598830857990e+01 1.853739313874370964e+00 2.760499940162388199e+00
1.381849540869803938e+01 2.166649510896263564e+00 2.760573881304657640e+00
1.382696062538546578e+01 2.451329412095560656e+00 2.678778125976818192e+00
1.383017370882343933e+01 2.755837549828925148e+00 2.646620930579240749e+00
1.382909618675555130e+01 3.062777834207395244e+00 2.657392374781452293e+00
1.383017032910020738e+01 3.368753896596331288e+00 2.646644488533676398e+00
1.382992864756866958e+01 3.679230377741419034e+00 2.648315300289134200e+00
1.383301497233583532e+01 3.984713263329012989e+00 2.633851757959584816e+00
1.383035044677889580e+01 4.298961312425490178e+00 2.645375724880065338e+00
1.383015698258561521e+01 4.609361980407811643e+00 2.646737340735926480e+00
1.383582738337972984e+01 4.912032642078202116e+00 2.590845591948100601e+00
1.384192117294458768e+01 5.207745199381065504e+00 2.531989231400604279e+00
1.384206971467029668e+01 5.526074366843999996e+00 2.530944397054066375e+00
1.384782606189593146e+01 5.831000142667448927e+00 2.474381799664318482e+00
1.382797023885678378e+01 6.140439118429640075e+00 2.525632187924223171e+00
1.382783924052219149e+01 6.451705370012405183e+00 2.526555164202114678e+00
1.383949480877689098e+01 6.753084489735442730e+00 2.412025137698294408e+00
1.383106790950659182e+01 7.062880724753654249e+00 2.447286562666858512e+00
1.383964383165016976e+01 7.373387579898235344e+00 2.411006908332109511e+00
1.383710673548187486e+01 7.677175862932017480e+00 2.421637425693067946e+00
1.383955527512445194e+01 7.986468884665441692e+00 2.411599847834090316e+00
1.383965950235862152e+01 8.291031595482991179e+00 2.410897062072749009e+00
1.383958625822129740e+01 8.603171353349921446e+00 2.411381958901137157e+00
1.382787033609834815e+01 8.911074047797114872e+00 2.526336329185112195e+00
1.384528699636842219e+01 9.211671772801082625e+00 2.485003361731648486e+00
1.384195823364395572e+01 9.525974821628892641e+00 2.531728124736665642e+00
1.383019651111013637e+01 9.830131188801033204e+00 2.646456912852058085e+00
1.384422701381809873e+01 1.014031038158782394e+01 2.651906947330318953e+00
1.383247722539428359e+01 1.044910812623493257e+01 2.766012396861411649e+00
1.382673438895790419e+01 1.075818465355428089e+01 2.835519177564399751e+00
1.384644685104458439e+01 1.106724575309419834e+01 2.771573100136882406e+00
1.383477578543994113e+01 1.137229357606554458e+01 2.884652240321610606e+00
1.383478455017161401e+01 1.168417717093939245e+01 2.884590563790098372e+00
1.383463131534151458e+01 1.198857274940598927e+01 2.885634251936471273e+00
1.383472548476510688e+01 1.229685979407213381e+01 2.885005414420843906e+00
1.383481261431956533e+01 1.260515601743065872e+01 2.884393992240191995e+00
1.383482243214311325e+01 1.290970487561207847e+01 2.884325390877902517e+00
1.383459363911410911e+01 1.322136130375758967e+01 2.885900856266452319e+00
1.384518256853949580e+01 1.353700554243789611e+01 2.783558209118444537e+00
1.384628463879928262e+01 1.384198832246806887e+01 2.772681792699891901e+00
1.382078894572876138e+01 1.413924698626942700e+01 2.879559626961996521e+00
1.383227863884095754e+01 1.445338085708124254e+01 2.767408402398212175e+00
1.383245843059854785e+01 1.476274892921935589e+01 2.766176239112273283e+00
1.383226095699152225e+01 1.506433242481386969e+01 2.767532772938962715e+00
1.384419587278407349e+01 1.539002896895044614e+01 2.652126797814796877e+00
1.383628688989157851e+01 1.568682143260036810e+01 2.685991170918189841e+00
1.383650523416541667e+01 1.599694077146205018e+01 2.684481912162258510e+00
1.384395919912996398e+01 1.630527758001858274e+01 2.653757813217544559e+00
1.384420214198697074e+01 1.661571869089925713e+01 2.652083333210420335e+00
1.384394401245686979e+01 1.691807203254040814e+01 2.653864658536483123e+00
1.384420698508469627e+01 1.722856693294397701e+01 2.652049659158353556e+00
1.384393030559695248e+01 1.753086506391571220e+01 2.653961166103353531e+00
1.384421293183645574e+01 1.784141789974944459e+01 2.652008270611601937e+00
1.384391807274115394e+01 1.814365717440932713e+01 2.654047375338812742e+00
1.384421995226480995e+01 1.845427192368003944e+01 2.651959376836359628e+00
1.384451317124027447e+01 1.876491406459547306e+01 2.649901731668640181e+00
1.384422801389884938e+01 1.906712931913386910e+01 2.651903204536098624e+00
1.384453983890677620e+01 1.937783841208408830e+01 2.649715195227023923e+00
1.384390225813750241e+01 1.968303591282756315e+01 2.654160529868883955e+00
1.414153519853779883e+01 2.894903212022654770e-01 2.690149520711325959e+00
1.415296816300748795e+01 5.905276859429022807e-01 2.643805449404940777e+00
1.415047312488017539e+01 9.017720261799695436e-01 2.653552302399888596e+00
1.415044558427266885e+01 1.208415600251214528e+00 2.653733392686693282e+00
1.415009022989794829e+01 1.519284954772615492e+00 2.656057984004011718e+00
1.415039411737242858e+01 1.821688587232529244e+00 2.654071625798302136e+00
1.415005910300035374e+01 2.132488193095923634e+00 2.656259556403575584e+00
1.414647440863890360e+01 2.442654385635933068e+00 2.689100843019219145e+00
1.414753942454542290e+01 2.749760539278554461e+00 2.666181337610318725e+00
1.415029252579677177e+01 3.062977179473591605e+00 2.654738223104114336e+00
1.415052014616239795e+01 3.365559555988511420e+00 2.653235084032411706e+00
1.415025750213732536e+01 3.676198424739027359e+00 2.654967444738562499e+00
1.414998588650785294e+01 3.986813200033907378e+00 2.656728111677983950e+00
1.415022794730324485e+01 4.289406606412399015e+00 2.655160448089668002e+00
1.415503226813147286e+01 4.593084477246065944e+00 2.572602928945106004e+00
1.413623207564009476e+01 4.916776724600595116e+00 2.649706423074190020e+00
1.413641232397135816e+01 5.219505840027863997e+00 2.648521584163019860e+00
1.413621683593094680e+01 5.530034325280553276e+00 2.649804905973693447e+00
1.414463019894818174e+01 5.829503905957039933e+00 2.573643464104948819e+00
1.415724554194585849e+01 6.134542549981574666e+00 2.500189311507295731e+00
1.414908476179281216e+01 6.450068440821269178e+00 2.533919208182072058e+00
1.415337823067866374e+01 6.753064414039272378e+00 2.495217387732898029e+00
1.414845235130249534e+01 7.060546889918441593e+00 2.473391244241548659e+00
1.413493470274480579e+01 7.376260964965808853e+00 2.529141607512381817e+00
1.413504850755308340e+01 7.680054969147704469e+00 2.528405424284706715e+00
1.413494545252115486e+01 7.991443736596693270e+00 2.529067567425137053e+00
1.413504083950158297e+01 8.295256082164428335e+00 2.528455648837620640e+00
1.415548786631460132e+01 8.597121789659809110e+00 2.476097673311759007e+00
1.414903995424901240e+01 8.910587380395213586e+00 2.534213248902095206e+00
1.414268520783606142e+01 9.215587422071280344e+00 2.591655307197724856e+00
1.413629983235786014e+01 9.527151806362553543e+00 2.649262091242353012e+00
1.415025998988082989e+01 9.830056631309048498e+00 2.654946494703506854e+00
1.414389643077903358e+01 1.014017496101689630e+01 2.712209745846601905e+00
1.413754423564225426e+01 1.044935324248342567e+01 2.769320485424276779e+00
1.415138895680487074e+01 1.075845314765820149e+01 2.775446772168469245e+00
1.415144463336367231e+01 1.106781258628291198e+01 2.775106946576758826e+00
1.413881789659626520e+01 1.137301548570928844e+01 2.888437010345401124e+00
1.413877489762279893e+01 1.167398459341484340e+01 2.888726238089204923e+00
1.413868840980642361e+01 1.198962142907089401e+01 2.889276843286439966e+00
1.413879076554865755e+01 1.229807544605910152e+01 2.888622886795395139e+00
1.413879935913723429e+01 1.260277917710050133e+01 2.888566648805554582e+00
1.413880957195327426e+01 1.290748466864886268e+01 2.888499721417692179e+00
1.413892743831794796e+01 1.321597305593809324e+01 2.887709466231867861e+00
1.414980045915342544e+01 1.353125829306759442e+01 2.788871561713030633e+00
1.415137157816839775e+01 1.384409543205742921e+01 2.775580281955700279e+00
1.415118206036848925e+01 1.414584861733703747e+01 2.776790724125942411e+00
1.414443131842827839e+01 1.445561373696330065e+01 2.772643666584347244e+00
1.413726784339634790e+01 1.475763911930323502e+01 2.771135439778833032e+00
1.413749391422567392e+01 1.506721280151680276e+01 2.769681274608288835e+00
1.413727027720862495e+01 1.536893118517730272e+01 2.771124296312361235e+00
1.413751871041807107e+01 1.567855173340672081e+01 2.769519982407069758e+00
1.414361627369341257e+01 1.598929956720974133e+01 2.714028272448353540e+00
1.415024477123378510e+01 1.630900984279867316e+01 2.655050647783828044e+00
1.414998498779226566e+01 1.661155813814423254e+01 2.656736274633776596e+00
1.415027876523485340e+01 1.692222835133134140e+01 2.654828335798170347e+00
1.415029777566564739e+01 1.722884292374271809e+01 2.654703844009655977e+00
1.415031810290682834e+01 1.753546129954315802e+01 2.654570629697905471e+00
1.415062377433797636e+01 1.784621993775397186e+01 2.652551174183435556e+00
1.415831825228568697e+01 1.815649227071457972e+01 2.621959001432738745e+00
1.414760061356541954e+01 1.846154592723621590e+01 2.665781518815210749e+00
1.414972273854571228e+01 1.876821798382547968e+01 2.658435550041206685e+00
1.415010853526783841e+01 1.907912743103827324e+01 2.655939262562937220e+00
1.415012821524170938e+01 1.938574096722265949e+01 2.655811237326174634e+00
1.415014916144976098e+01 1.969235878383278759e+01 2.655674817060171389e+00
1.444168043234059517e+01 3.114226872191920847e-01 2.779572407074149876e+00
1.444203873457405152e+01 6.128998806233312280e-01 2.777365870980597951e+00
1.444159507135524478e+01 9.230860519063526226e-01 2.780094922019465287e+00
1.444194214387776043e+01 1.224612692048367535e+00 2.777962481384850246e+00
1.444188765893072102e+01 1.537839672036170668e+00 2.778298444475360895e+00
1.444599317812549266e+01 1.842790486146896001e+00 2.743921496359044809e+00
1.444212879345339395e+01 2.152716907791500489e+00 2.776806234053817324e+00
1.444175960888891375e+01 2.462703724365042035e+00 2.779085701381583728e+00
1.444204007098229603e+01 2.764405184435872798e+00 2.777356364193872995e+00
1.444169320544979840e+01 3.074323250544011898e+00 2.779491999897592436e+00
1.445531993478747168e+01 3.359971861543613159e+00 2.665195574855825367e+00
1.445583241710717104e+01 3.673425527432868876e+00 2.662030788163120665e+00
1.445553944095955501e+01 3.984188340230730319e+00 2.663849877945900335e+00
1.445575342539284591e+01 4.286948646835867294e+00 2.662522889471055976e+00
1.445548414712437868e+01 4.597655474973180389e+00 2.664189653357649235e+00
1.445520510665348901e+01 4.908338775435595380e+00 2.665886201859495763e+00
1.446407619439385961e+01 5.213195004028534640e+00 2.629559070126755049e+00
1.445969330572805767e+01 5.525404005559721554e+00 2.629120072371204486e+00
1.446649373040223097e+01 5.829946805257691267e+00 2.559726406164890111e+00
1.444169524143920036e+01 6.141672684639502222e+00 2.657679818668523986e+00
1.444149965852211714e+01 6.452282279739620208e+00 2.658874170041339191e+00
1.444179305494096077e+01 6.758766347447590306e+00 2.657067791332076823e+00
1.445547964610646829e+01 7.063982397806853442e+00 2.541940844763170393e+00
1.446008199058354293e+01 7.367733957714108328e+00 2.503271100055053378e+00
1.445544331709017527e+01 7.679378679484443637e+00 2.542168279166503009e+00
1.445961476156797865e+01 7.982197798105175934e+00 2.507176007986012145e+00
1.445541755275594298e+01 8.294764462445982645e+00 2.542329149915840247e+00
1.444311851327569052e+01 8.600278098793523895e+00 2.645803013045326946e+00
1.444168791644759153e+01 8.913463720629351883e+00 2.657725075976244522e+00
1.446102737725863108e+01 9.214130607358811176e+00 2.581190309798105709e+00
1.445555143924499930e+01 9.527024857731362317e+00 2.663775058634370918e+00
1.445555715666660390e+01 9.829988601626951095e+00 2.663736090323387096e+00
1.444188296556182394e+01 1.014001761807867297e+01 2.778324190126451931e+00
1.446480170035391843e+01 1.045287628539756497e+01 2.708197482677507040e+00
1.445563963408986652e+01 1.075873736675873715e+01 2.784710461184081165e+00
1.445570001310666086e+01 1.106821689386970320e+01 2.784357035975937311e+00
1.444211741524802406e+01 1.137352899427185093e+01 2.897904835474447882e+00
1.444208259537014882e+01 1.167461088277229919e+01 2.898131966461976017e+00
1.444200517884740620e+01 1.199036809129165704e+01 2.898602771913227460e+00
1.444211588760649612e+01 1.229894218599213218e+01 2.897925067995247073e+00
1.444202086262900053e+01 1.259999318626205422e+01 2.898509593582642374e+00
1.444215687801548142e+01 1.290859189316529410e+01 2.897669679546602595e+00
1.444204818682663927e+01 1.320962765708952702e+01 2.898343420942740334e+00
1.444757405848398868e+01 1.352657807503794629e+01 2.816078830353419882e+00
1.445554060949267772e+01 1.384176653221743436e+01 2.785327175504732189e+00
1.445555463302012456e+01 1.414750616308776898e+01 2.785243435281302915e+00
1.445557148818785898e+01 1.445324929544415227e+01 2.785141930942246269e+00
1.446243430677006714e+01 1.476623204022450864e+01 2.727855489617175611e+00
1.446931963823815437e+01 1.508017124576019796e+01 2.670384797204774063e+00
1.444180807725757099e+01 1.537119316868177066e+01 2.778787563382297598e+00
1.444057329394662759e+01 1.567685711179910868e+01 2.789419689077592412e+00
1.444186419352020501e+01 1.598279737412451595e+01 2.778442948462479745e+00
1.444215593792860020e+01 1.629261501360997499e+01 2.776632458397390035e+00
1.444193075226385758e+01 1.659442453805945661e+01 2.778032628615744848e+00
1.444224560361177545e+01 1.690430286717366926e+01 2.776073481640982887e+00
1.445096598856313896e+01 1.721525304859437711e+01 2.742692380048509904e+00
1.443357779939154639e+01 1.751533401453411898e+01 2.811234869074865639e+00
1.444141481517627135e+01 1.782415272263153838e+01 2.781191355800610499e+00
1.444181717739617632e+01 1.813417903813319754e+01 2.778732259518830183e+00
1.444627515357350944e+01 1.844713626908549031e+01 2.741172086048384582e+00
1.444190235881088213e+01 1.874585197628300648e+01 2.778207851868073952e+00
1.444231504168002189e+01 1.905598787822214035e+01 2.775649408183201050e+00
1.444199697444698849e+01 1.935755708159683763e+01 2.777623997429125247e+00
1.444205840201673041e+01 1.967080916219026676e+01 2.777244333495596962e+00
1.477382401143933777e+01 2.768367523265169439e-01 2.684155745416760830e+00
1.477373418785385972e+01 5.911060629230178165e-01 2.684678576419860185e+00
1.477408261707860326e+01 8.936017986610522712e-01 2.682644834169224168e+00
1.477359020147989099e+01 1.204784140024344197e+00 2.685514756923847113e+00
1.477393034838898700e+01 1.507318799084032435e+00 2.683535178931836462e+00
1.477346046539562430e+01 1.818416013082696736e+00 2.686265531417505681e+00
1.477209189619488683e+01 2.125921826535773107e+00 2.697173389328390680e+00
1.477406018827766232e+01 2.438451165172978108e+00 2.682773487834301918e+00
1.477364869843355777e+01 2.749422621280814383e+00 2.685175083268796392e+00
1.474551678789597986e+01 3.072303735768855404e+00 2.792019330529734944e+00
1.474513290052986036e+01 3.382297489034158389e+00 2.794256329247509107e+00
1.474540120285415412e+01 3.684134815044558309e+00 2.792695949045067128e+00
1.473581158671990465e+01 4.002105924264810710e+00 2.829622355945354606e+00
1.474971997731273454e+01 4.304690286029085655e+00 2.758705528542225949e+00
1.474550013984648977e+01 4.612613132687215511e+00 2.792115104085211019e+00
1.475548483249419718e+01 4.910817811723291015e+00 2.713320445493587307e+00
1.476003794248265777e+01 5.209822122937225686e+00 2.677926409505113181e+00
1.475044284584172694e+01 5.527217333405928912e+00 2.714855712599214765e+00
1.475995045903945346e+01 5.838239138784842908e+00 2.678437256031310998e+00
1.476010312849403405e+01 6.141179753257574703e+00 2.677541417843295246e+00
1.475989190292841613e+01 6.451835665843418610e+00 2.678776579008475878e+00
1.477475879381186985e+01 6.744856991915867184e+00 2.562487820539750771e+00
1.477457343326105210e+01 7.056427428869596952e+00 2.563563222350298432e+00
1.476526410323179661e+01 7.365303201773713226e+00 2.598797181826984382e+00
1.477478626335291523e+01 7.679095665716999974e+00 2.562321741482357140e+00
1.477482408591851204e+01 7.983049146992811984e+00 2.562078149221101331e+00
1.477474087732657537e+01 8.294561744592101604e+00 2.562591274782717754e+00
1.477476738886082863e+01 8.598519726769495719e+00 2.562419903979781033e+00
1.475998378832862201e+01 8.913344146791928324e+00 2.678242812750781798e+00
1.475999855511872560e+01 9.216376921892219798e+00 2.678146191637976070e+00
1.475997120046443456e+01 9.526912532013284363e+00 2.678316038915995012e+00
1.474533508782197977e+01 9.830464231425253274e+00 2.793077236434697852e+00
1.477374577458162541e+01 1.014045957826363065e+01 2.684608031105242709e+00
1.475905497935533184e+01 1.044957631093711825e+01 2.799395165753395531e+00
1.475900545043959333e+01 1.075890567069541248e+01 2.799702846957217162e+00
1.475907064078056230e+01 1.106845799698828614e+01 2.799336437518293863e+00
1.474441486430589876e+01 1.136635542628937401e+01 2.913766989322195133e+00
1.474450716652073190e+01 1.167498201945329583e+01 2.913233806397134806e+00
1.475857717203405173e+01 1.199369971439466553e+01 2.859820676635440595e+00
1.477263584578380140e+01 1.229858109141025579e+01 2.806539884963830556e+00
1.474447787471358851e+01 1.260058220691098541e+01 2.913406406972574914e+00
1.474310125631575019e+01 1.290610587206424498e+01 2.924319101247502939e+00
1.474453270563932428e+01 1.321036892800157148e+01 2.913086041645288837e+00
1.475929651147657395e+01 1.352978608247690318e+01 2.797996855930154680e+00
1.475880620871341264e+01 1.383883817188325338e+01 2.800857372349300434e+00
1.475905383292396600e+01 1.414852911993637008e+01 2.799434253772784320e+00
1.475885814011946984e+01 1.445046355365798263e+01 2.800563529372143812e+00
1.475913209190025022e+01 1.476020105621535095e+01 2.798978332827437576e+00
1.475892667356951549e+01 1.506211209492130365e+01 2.800170473850394970e+00
1.477389774384468701e+01 1.538829552129948297e+01 2.683723274847277906e+00
1.477367914934602489e+01 1.569110082341899215e+01 2.684998138074216723e+00
1.477400632838308248e+01 1.600189467462359971e+01 2.683085937728859172e+00
1.477377798070846282e+01 1.630467359826491247e+01 2.684423712776174309e+00
1.477384202499527177e+01 1.661887505863353454e+01 2.684050277018446895e+00
1.477320484472440754e+01 1.692483254758553812e+01 2.687733462748966851e+00
1.477362880626914254e+01 1.723577001387354812e+01 2.685290436349915044e+00
1.477779570202766379e+01 1.754612147536261091e+01 2.652200166323765096e+00
1.477375014676447229e+01 1.784938916952978616e+01 2.684585745330553497e+00
1.477249823666590700e+01 1.815542063794669048e+01 2.694808407746976719e+00
1.477388613650410498e+01 1.846305137142951480e+01 2.683793339923950416e+00
1.477397080134691443e+01 1.877730818234329035e+01 2.683298926278119723e+00
1.477318136601837217e+01 1.908284080486487255e+01 2.687877859127584923e+00
1.477370937190883105e+01 1.939407241896685719e+01 2.684822873499550511e+00
1.477331659362417327e+01 1.969647161830425830e+01 2.687099091405601214e+00
1.507695779834858918e+01 2.764406256638949344e-01 2.705690510393555570e+00
1.507684983950275104e+01 5.833520096746269701e-01 2.706285602452251471e+00
1.506753844601615810e+01 9.032250880649144165e-01 2.741661789349718603e+00
1.507753242303267349e+01 1.203256802258579228e+00 2.702505033397777812e+00
1.507699251763189174e+01 1.514476646480375166e+00 2.705498893434094665e+00
1.507732239715575417e+01 1.817087545866229448e+00 2.703672673996872611e+00
1.507680651742646383e+01 2.128218276168354350e+00 2.706523307710362758e+00
1.507713149706594891e+01 2.430857705958032966e+00 2.704730912231104067e+00
1.507664039137902989e+01 2.741904098199256623e+00 2.707434030409445747e+00
1.507730145235447239e+01 3.055255543368502913e+00 2.703787544235181528e+00
1.507721632561683656e+01 3.362116447114544826e+00 2.704260393865371981e+00
1.507678910235396863e+01 3.673040471506851645e+00 2.706617325247658190e+00
1.507706145381532892e+01 3.975800748602750900e+00 2.705118234355638140e+00
1.507666072916925870e+01 4.286654830953466444e+00 2.707317945611459997e+00
1.508622589885335330e+01 4.590879011957099465e+00 2.670548615197287035e+00
1.507713346637745921e+01 4.907079090832894508e+00 2.704719409402265740e+00
1.507707225555691899e+01 5.213891699458258699e+00 2.705058480890694561e+00
1.507701647300143399e+01 5.520695015206683820e+00 2.705366581117905067e+00
1.504743708328002150e+01 5.843507072296006299e+00 2.815377852787100732e+00
1.506362405598501830e+01 6.140783215892611224e+00 2.697197836790051984e+00
1.506339771582683085e+01 6.451477154826648075e+00 2.698469535321499357e+00
1.506351939315064570e+01 6.754477045868156893e+00 2.697787442414523618e+00
1.506332175619880331e+01 7.065131842338360002e+00 2.698889351851454954e+00
1.506343671774411064e+01 7.368142636812308410e+00 2.698251435324876546e+00
1.506326811372827557e+01 7.678764790939112572e+00 2.699181660982516995e+00
1.506337633039100865e+01 7.981786088757758080e+00 2.698588111350077590e+00
1.506343283318873105e+01 8.299618454057053896e+00 2.698269302888407939e+00
1.506344831941694551e+01 8.602675408525101375e+00 2.698165022016619119e+00
1.506338947205776080e+01 8.913250530471827915e+00 2.698514280109417296e+00
1.505071041793719644e+01 9.220651100595432581e+00 2.802604153041724278e+00
1.507704100779411149e+01 9.526941769785366887e+00 2.705231071307006907e+00
1.507704243970554181e+01 9.829955433170994183e+00 2.705218694861732054e+00
1.506920866484992239e+01 1.014025708443602980e+01 2.762766197535365453e+00
1.506138772214236710e+01 1.044961207083542831e+01 2.820169093802075366e+00
1.506134436135686627e+01 1.075895768427210442e+01 2.820431732081724263e+00
1.506141445033929926e+01 1.106853536466030619e+01 2.820052988582643305e+00
1.507498274519287662e+01 1.137041454258576323e+01 2.826946231724480452e+00
1.507508264820277510e+01 1.167996198415278286e+01 2.826392721072121361e+00
1.506973936895719568e+01 1.199219088401855515e+01 2.865286118820737027e+00
1.507491957386899095e+01 1.229874207941611530e+01 2.827290902611664158e+00
1.507508875542794513e+01 1.260832680137900752e+01 2.826362363186914806e+00
1.507497562092261489e+01 1.291032628011419092e+01 2.826986966729489570e+00
1.507517384556992646e+01 1.321994360412634251e+01 2.825887242044262226e+00
1.506142499840388282e+01 1.352244320363797669e+01 2.819995396262909182e+00
1.506127154903875009e+01 1.383918819133452871e+01 2.820839290904465280e+00
1.506106127252583171e+01 1.414114435134194991e+01 2.821984966265294048e+00
1.506136664004595005e+01 1.445089789263556668e+01 2.820317574794540150e+00
1.506115063392137365e+01 1.475283452507710535e+01 2.821501922214751268e+00
1.506148376896620533e+01 1.506264186142357175e+01 2.819670142689136405e+00
1.506126209179686093e+01 1.536455877557136773e+01 2.820892793042380831e+00
1.506162248298326212e+01 1.567442590598977858e+01 2.818899545276801089e+00
1.506412525117941215e+01 1.598006746693886271e+01 2.810420841576465545e+00
1.507129947774505929e+01 1.630300028575413762e+01 2.746445824577002259e+00
1.507683992937953121e+01 1.661897655261532236e+01 2.706338692173348548e+00
1.507691662139274769e+01 1.692581064244518529e+01 2.705917082259497786e+00
1.507190813322907452e+01 1.722668295931441662e+01 2.743104434683709680e+00
1.507708530570056382e+01 1.753951728963738788e+01 2.704986414834175790e+00
1.507756420119203611e+01 1.785059562355638718e+01 2.702324153771169080e+00
1.507685882680662637e+01 1.815641995050179958e+01 2.706235685517675016e+00
1.507696645478313613e+01 1.847070431976158034e+01 2.705642684234790707e+00
1.507659218993880401e+01 1.877323030194213516e+01 2.707701374345381495e+00
1.507717052945752734e+01 1.908450198794389507e+01 2.704515094055693680e+00
1.507679194655372612e+01 1.938699562664919540e+01 2.706604354777838672e+00
1.507739311072476873e+01 1.969836427925031330e+01 2.703281517002065204e+00
1.536285544959846838e+01 3.101237242111665182e-01 2.845112640886334088e+00
1.536803857566351361e+01 6.080750063541700001e-01 2.808635048484596997e+00
1.536255953237964533e+01 9.221385847479268705e-01 2.846670800534541357e+00
1.536189283814018047e+01 1.232508546274402761e+00 2.850160869430491850e+00
1.535258936974129185e+01 1.544291612165011429e+00 2.882339686872286144e+00
1.536261259556198766e+01 1.850488567367960968e+00 2.846391760989176234e+00
1.536292707507702282e+01 2.152202804091643884e+00 2.844732542900215044e+00
1.536236556039705548e+01 2.462364824367227811e+00 2.847688680903079028e+00
1.536267927003318690e+01 2.764097951992539492e+00 2.846040667047192940e+00
1.536214396174076136e+01 3.074172466150116634e+00 2.848846372718423670e+00
1.537297661052808628e+01 3.373897776987860198e+00 2.808676537407278406e+00
1.536270551347372937e+01 3.692501352448630314e+00 2.845902018187904225e+00
1.535721084399513003e+01 4.003157190314482250e+00 2.884000844153975063e+00
1.537909888202830366e+01 4.286836283629213540e+00 2.731970060948454737e+00
1.537865720089364530e+01 4.597662149525035602e+00 2.734273269148235652e+00
1.537923406912265101e+01 4.903855814056100826e+00 2.731259016992388933e+00
1.537914480470006318e+01 5.218053406344665746e+00 2.731728859033764945e+00
1.537933277262368215e+01 5.520921569456504585e+00 2.730736527491957499e+00
1.537900512303032485e+01 5.831616458322059771e+00 2.732459855361269785e+00
1.537919127535698571e+01 6.134496733419268821e+00 2.731484437404665400e+00
1.537912450708767942e+01 6.448665574548954282e+00 2.731835275137090679e+00
1.537941833255440294e+01 6.755155347233198881e+00 2.730269678604598127e+00
1.537920670028149850e+01 7.065750528247917828e+00 2.731402963338553480e+00
1.537930229849486530e+01 7.368704551311793693e+00 2.730892306825384530e+00
1.537912155700281502e+01 7.679265015673991002e+00 2.731850169928971006e+00
1.537921498768163886e+01 7.982224806806584638e+00 2.731358339251915179e+00
1.537906544136466813e+01 8.292757539461149463e+00 2.732139112602926634e+00
1.537926144927880578e+01 8.602981021090613467e+00 2.731085393215009205e+00
1.537919876089203797e+01 8.913490623839038562e+00 2.731442648372168325e+00
1.537920009655262632e+01 9.216479964600466701e+00 2.731423603097232977e+00
1.537916900441448220e+01 9.526978623753734610e+00 2.731601643840295246e+00
1.537085253145160912e+01 9.830227199823980300e+00 2.789214376065268119e+00
1.536256273055452404e+01 1.014003285860223968e+01 2.846650872249976150e+00
1.536255126594072351e+01 1.044957878587729283e+01 2.846682134756680860e+00
1.539268038784114445e+01 1.076110229599692047e+01 2.738746013502129539e+00
1.539275609234245223e+01 1.107155894243737748e+01 2.738352900753218577e+00
1.537606143501175282e+01 1.137029286118774962e+01 2.853627831052452990e+00
1.537616815444273577e+01 1.167981666893365400e+01 2.853058828947821812e+00
1.537583864221374874e+01 1.198900001812432947e+01 2.854772161789770557e+00
1.537603187502404190e+01 1.229854988116937875e+01 2.853782281361307405e+00
1.538155238285233928e+01 1.260570582739387646e+01 2.815608816413466720e+00
1.537611783483515460e+01 1.291009593260719157e+01 2.853332221864299356e+00
1.537070300411461155e+01 1.321388006830318318e+01 2.890926731456165300e+00
1.539287484616157542e+01 1.353246244625461259e+01 2.737726830246884013e+00
1.539274491269307177e+01 1.385012312684534663e+01 2.738413542405696788e+00
1.539255812033460202e+01 1.415295682302598834e+01 2.739389746602623354e+00
1.538264704873446220e+01 1.446159582194809445e+01 2.774656199238892285e+00
1.536253320554047441e+01 1.475259044820120380e+01 2.846809088194732329e+00
1.536288898774704492e+01 1.506239189953498681e+01 2.844926396283391057e+00
1.536270058073598044e+01 1.536432396474322104e+01 2.845927540158760483e+00
1.535967513432050069e+01 1.567729318512090231e+01 2.856806182494279867e+00
1.536221570152100924e+01 1.598279188990386501e+01 2.848470095497561694e+00
1.536268358509315668e+01 1.629273846106843848e+01 2.846017689553553609e+00
1.536240914278160119e+01 1.659455013663477985e+01 2.847459957149580667e+00
1.536290443930106342e+01 1.690457455956436661e+01 2.844850669749257044e+00
1.536262892288831594e+01 1.720636953862947394e+01 2.846305807996317938e+00
1.537293170073987980e+01 1.752590359334919867e+01 2.808916366266668962e+00
1.536198119190823697e+01 1.782452620268691135e+01 2.849697424918010480e+00
1.536258426234497421e+01 1.813473840115057101e+01 2.846540783512208961e+00
1.536222667660539365e+01 1.843637586893100888e+01 2.848416432951882626e+00
1.536285468564583567e+01 1.874668442295308068e+01 2.845116101151827337e+00
1.536249673346589617e+01 1.904830046547942857e+01 2.847000773827684128e+00
1.536265668066344503e+01 1.936168398263987456e+01 2.846159838799026343e+00
1.536169625431081442e+01 1.966607010401548905e+01 2.851188684220742786e+00
1.569446935127688647e+01 2.805975855020506060e-01 2.763010626046227713e+00
1.569391187284157851e+01 5.944136239949102674e-01 2.768508959715756834e+00
1.569941370629171828e+01 8.934671784380725512e-01 2.731942113200126254e+00
1.569353639814026558e+01 1.208142365149001307e+00 2.770395680356958934e+00
